# .PCD v0.7 - Point Cloud Data file format
VERSION 0.7
FIELDS x y z
SIZE 4 4 4
TYPE F F F
COUNT 1 1 1
WIDTH 1501
HEIGHT 1
VIEWPOINT 0 0 0 1 0 0 0
POINTS 1501
DATA ascii
-0.76008356 0.2460984 2.1109004
-0.73708659 0.24446833 2.1096001
-0.70763791 0.24626422 2.1187003
-0.67467076 0.24344555 2.1200001
-0.64510602 0.24121891 2.1200001
-0.62345815 0.24616699 2.1200001
-0.58636296 0.24591666 2.1178334
-0.54402477 0.24527217 2.1070001
-0.52658999 0.24576494 2.1165338
-0.50841522 0.24307445 2.1200001
0.80901116 0.24121891 2.1200001
0.82345289 0.24792342 2.1139336
-0.42424983 0.43681732 2.1148
-0.40450034 0.43806022 2.1144283
-0.38966134 0.44903824 2.1200001
-0.39775068 0.45809919 2.110467
-0.38807088 0.46176189 2.1200001
-0.39096022 0.50037986 2.1070001
-0.37553632 0.50244755 2.1069996
-0.35467094 0.50573426 2.1105559
-0.37104616 0.52079439 2.1091666
-0.35538492 0.52548891 2.1169047
-0.36145374 0.5421806 2.1070001
-0.34588069 0.54991931 2.1101196
-0.33954266 0.58456552 2.1126878
-0.34742618 0.61444044 2.1167061
0.68401492 -0.63703597 2.1470001
0.70885575 -0.6422022 2.1409998
0.73367798 -0.64286971 2.1384192
0.76388663 -0.64404929 2.1372423
0.79451865 -0.64039433 2.13779
0.82100278 -0.64048338 2.1391029
0.85279149 -0.64178973 2.1421535
0.88689387 -0.64009947 2.1419997
0.9139927 -0.63617706 2.1372607
0.94688529 -0.63840675 2.1385999
0.97743154 -0.64834321 2.1399996
1.007672 -0.64190978 2.1402001
1.0492026 -0.63101518 2.1330001
0.92266858 -0.62764019 2.1470001
0.93206429 -0.62764019 2.1470001
1.0145506 -0.61630034 2.1366293
1.0357387 -0.61402929 2.1360433
1.0607868 -0.62059331 2.1470001
0.77663386 0.11948207 2.1330001
0.76792175 0.13801293 2.1329997
0.78575581 0.13519886 2.1454442
0.82553756 0.14302239 2.1403041
0.84010875 0.14001811 2.1330001
0.77376175 0.16572398 2.1329999
0.79543883 0.16593859 2.1380649
0.81748897 0.16129142 2.1351874
0.74676335 0.20162608 2.1330001
0.76526999 0.19437906 2.1353331
0.79280287 0.19419439 2.1384296
0.8102383 0.19575866 2.1330001
-0.46299326 0.23896426 2.1330001
-0.44245726 0.23896426 2.1330001
-0.40449682 0.23896426 2.1330001
-0.37190688 0.23797698 2.1353335
-0.3416442 0.23896426 2.1330001
-0.31488523 0.23813455 2.1330001
-0.28899738 0.23747075 2.1330001
-0.2426981 0.23896426 2.1330001
-0.22451507 0.23356701 2.1376665
-0.097170278 0.23918831 2.135
-0.069874339 0.23086303 2.1385999
-0.046092577 0.22716618 2.1413999
-0.01453399 0.22576915 2.1376667
0.013864501 0.22772086 2.1387646
0.046406057 0.23416361 2.1330001
0.063474916 0.23523046 2.1330001
0.11574841 0.22402894 2.1330001
0.13492857 0.22486921 2.1410003
0.17548941 0.22029513 2.1330001
0.20705386 0.22951384 2.1376667
0.22056757 0.22995627 2.1459997
0.80037731 0.21676777 2.1429999
0.81440645 0.22576614 2.1403682
-0.76857722 0.25932431 2.1470001
-0.73929572 0.2501657 2.1330001
-0.70009065 0.25389951 2.1330001
-0.63949865 0.25378171 2.1413999
-0.61789411 0.25246888 2.1380908
-0.58250594 0.25024545 2.1407778
-0.55758506 0.25252223 2.1434999
-0.52433735 0.25425741 2.1429999
-0.49298811 0.24369368 2.1417501
-0.46060345 0.24303828 2.1470001
-0.43151185 0.24483238 2.1435001
-0.40333208 0.24615936 2.1413999
-0.38083726 0.24406348 2.1450002
-0.3432602 0.24366467 2.1470001
-0.3146742 0.2456577 2.1469998
-0.28939089 0.24429105 2.1470001
-0.2414723 0.24429102 2.1470001
-0.22800498 0.2411591 2.1470001
0.026308296 0.24429104 2.1470001
0.036513712 0.24434084 2.1444545
0.82250649 0.24749868 2.1330001
0.35553747 0.29314926 2.1470001
0.36079916 0.29502839 2.1470001
0.35234284 0.30348465 2.1470001
-0.43972385 0.35704073 2.1470001
0.3554 0.33599827 2.1446669
0.36455742 0.34200749 2.1470001
-0.42281139 0.38334897 2.1470001
-0.41717395 0.38710731 2.1470001
-0.42609999 0.40120107 2.1470001
-0.40740356 0.40738937 2.1376677
-0.383349 0.41717392 2.1470001
-0.43221051 0.42821261 2.1399999
-0.3988308 0.43101856 2.1374002
-0.37969077 0.43714479 2.1425197
-0.37725642 0.46234378 2.13779
-0.35097873 0.50779903 2.1330001
-0.34878427 0.52434558 2.1367497
-0.34650534 0.54692626 2.1400001
-0.33300185 0.59065479 2.1434999
-0.34037131 0.61680347 2.1411874
-0.34200746 0.63139838 2.1470001
0.6870321 -0.63388622 2.1684
0.70516193 -0.63847286 2.166177
0.73347986 -0.63660055 2.1701922
0.76398271 -0.63725382 2.1724193
0.79377311 -0.63477498 2.1709599
0.83035147 -0.63278699 2.1736922
0.85672033 -0.6360563 2.1661501
0.88455534 -0.63398844 2.1649413
0.91013813 -0.63149798 2.1628001
0.95299619 -0.63279653 2.1646667
0.97649634 -0.63907516 2.1728067
1.0015098 -0.63599312 2.173697
1.0738268 -0.63144052 2.1600001
0.68768805 -0.61896759 2.1805
0.70510381 -0.62439823 2.1849999
0.73934889 -0.62641275 2.187
0.7645877 -0.62463337 2.1856315
0.79599684 -0.62569964 2.1861875
0.82557929 -0.62320763 2.1856074
0.85429037 -0.62584257 2.1783478
0.88729316 -0.62763697 2.1777058
0.91378838 -0.62569243 2.1751482
0.94306839 -0.62401187 2.1760001
0.96686959 -0.62487084 2.187
1.0146616 -0.62474883 2.171
1.028703 -0.61000067 2.1786842
1.0698007 -0.62015283 2.1683848
1.0854521 -0.61307496 2.1735713
1.0285484 -0.59466946 2.187
0.80229628 0.11759328 2.1670001
0.81874478 0.11832587 2.1805
0.80410022 0.1354437 2.165158
0.81908721 0.13307358 2.1646249
0.79969859 0.15502425 2.1600001
-0.066168904 0.23726276 2.1600001
-0.041244566 0.23686248 2.1684
-0.014800112 0.23458481 2.1684
0.0048614177 0.23626795 2.1619999
0.11670472 0.23848343 2.174
0.13479708 0.23662318 2.1724443
0.15887749 0.23488621 2.1712
0.20505242 0.23923732 2.1693335
0.22623466 0.2363175 2.1600001
0.41346109 0.23161474 2.187
0.43601948 0.2353965 2.1830001
0.45174453 0.23544309 2.187
0.49768472 0.2335289 2.187
0.79969853 0.21552153 2.1600001
0.81482285 0.23064584 2.1600001
-0.76106548 0.26416317 2.1682
-0.73777425 0.26354825 2.1724999
-0.64656472 0.26042187 2.1600001
-0.61436909 0.26285946 2.1679475
-0.58312637 0.26206139 2.1708748
-0.56539685 0.2610293 2.1736
-0.52218741 0.260827 2.1638572
-0.49471247 0.256163 2.1654246
-0.46438989 0.25547737 2.1737273
-0.43670809 0.25596327 2.1730478
-0.40336353 0.25968137 2.1730869
-0.37513003 0.25410619 2.1736667
-0.34766471 0.25425446 2.1723332
-0.31695688 0.25667456 2.1729047
-0.29119989 0.25538337 2.1746666
-0.24198912 0.25333235 2.1600001
-0.228219 0.25152433 2.1682
-0.091880232 0.24501398 2.187
-0.074406445 0.2447838 2.17925
-0.044075824 0.24783225 2.1810908
-0.01646186 0.24501398 2.187
0.013398971 0.24868228 2.1737058
0.047520824 0.24506213 2.1705
0.060889479 0.24355757 2.174
0.11716745 0.24580462 2.1826668
0.13820323 0.24309981 2.187
0.16188428 0.24282634 2.187
0.20626691 0.24724893 2.177125
0.22149248 0.24894652 2.1777501
0.3818306 0.26344767 2.181222
0.39049107 0.26798403 2.187
0.43451703 0.24501398 2.187
0.50560862 0.24707316 2.1826668
0.52502996 0.2482954 2.187
0.54745311 0.26415569 2.187
-0.76910526 0.2710045 2.1805
-0.73828387 0.27019665 2.174
-0.63359082 0.27181235 2.187
-0.61827749 0.27181235 2.187
-0.59339327 0.27181235 2.187
-0.32732338 0.27181235 2.187
0.37734964 0.28541446 2.1710272
0.39255574 0.28582576 2.1772499
0.35542157 0.31783313 2.1600001
0.37500972 0.31511968 2.1676259
0.39801118 0.31860486 2.1831484
-0.44238639 0.35920259 2.1600001
0.37629107 0.33773631 2.1636522
0.39688122 0.33530393 2.1665883
-0.45372963 0.36487421 2.1600001
-0.4392474 0.37421316 2.1625555
-0.41748834 0.38636366 2.1682
-0.43718743 0.41001087 2.1600001
-0.40788236 0.39645019 2.1736
-0.38945124 0.41969988 2.1600001
-0.43968561 0.42564157 2.1600001
-0.34071526 0.52906895 2.1786153
-0.33822268 0.55136263 2.1811178
-0.32428437 0.5577172 2.1795001
-0.33108604 0.59367156 2.174
-0.32732338 0.59530747 2.187
-0.33340657 0.61746085 2.1689091
-0.32704383 0.6136474 2.185143
-0.33697838 0.6409632 2.1822858
-0.32923758 0.63741922 2.187
0.73589456 -0.63186765 2.2010002
0.98632991 -0.63379407 2.2010002
1.0049551 -0.63236701 2.2027502
1.0240426 -0.63196218 2.2103336
0.70805842 -0.61747897 2.2076957
0.73668188 -0.620942 2.2084374
0.76212174 -0.61646944 2.2082264
0.79494947 -0.62203199 2.2101307
0.82291275 -0.61824089 2.2099092
0.85536361 -0.61881655 2.2058697
0.88492364 -0.62154907 2.2077999
0.9154923 -0.61870992 2.2073226
0.94339329 -0.6147781 2.2078209
0.97671658 -0.61541259 2.2099087
1.0064648 -0.61873484 2.2095366
1.0257053 -0.61029029 2.2045002
1.0710926 -0.62030911 2.2010002
1.0908394 -0.60966504 2.2116668
1.0197451 -0.59129715 2.2150002
1.0272187 -0.59327227 2.2094002
1.0875989 -0.59323585 2.2150002
0.41675007 0.23502386 2.2010002
0.42381361 0.2388767 2.2010002
0.46550071 0.23684239 2.2045002
0.4807924 0.23651876 2.2150002
-0.49509135 0.26905739 2.2010002
-0.46894696 0.26694751 2.2010002
-0.43768382 0.26584667 2.2010002
-0.41129184 0.26969951 2.2010002
-0.37308443 0.26745206 2.2010002
-0.34675658 0.26632831 2.2010002
-0.31208092 0.26584667 2.2010002
-0.28733554 0.26741278 2.2033336
-0.22924463 0.26584667 2.2010002
-0.098872632 0.25396693 2.2150002
-0.073500462 0.25707987 2.2099092
-0.042775579 0.25912693 2.2070003
-0.012900003 0.25580001 2.2103336
0.0038563772 0.26050293 2.2070003
0.046818025 0.25930014 2.2108002
0.069627047 0.24998608 2.2097502
0.13652517 0.25266421 2.2060001
0.15878834 0.25220317 2.2080002
0.20805402 0.2600674 2.2010002
0.22672264 0.25951469 2.2045002
0.40190631 0.25749931 2.2076318
0.43825841 0.25582632 2.2063336
0.46420571 0.25595012 2.2058709
0.49393201 0.25150859 2.2040277
0.53026146 0.25717428 2.2013047
0.55091238 0.25878167 2.2026472
-0.78665972 0.28001487 2.2094002
-0.76570815 0.27983302 2.2106252
-0.74482769 0.27894914 2.2132502
-0.63196206 0.279874 2.2103336
-0.61478746 0.2784054 2.2088752
-0.58745819 0.27600077 2.2103336
-0.4951548 0.27447489 2.211889
-0.46760935 0.27141502 2.2150002
-0.43959543 0.27189967 2.2150002
-0.37765464 0.27761877 2.2150002
-0.34697014 0.27494437 2.2122002
-0.31340998 0.27791038 2.2126667
-0.29080182 0.27374142 2.2150002
0.40007448 0.27701253 2.2081668
0.44201884 0.27141502 2.2150002
0.56415558 0.2733537 2.2150002
-0.41251484 0.38398904 2.2024002
-0.32182068 0.36059424 2.2150002
-0.40695608 0.39488524 2.2062502
-0.33354685 0.53224385 2.2010002
-0.32595119 0.53631687 2.2010002
-0.3313452 0.54517841 2.2010002
-0.32193366 0.55049729 2.206182
-0.32171303 0.59719187 2.2010002
-0.3223078 0.61427498 2.2070003
-0.3313452 0.65113175 2.2010002
-0.32581088 0.64108723 2.2086365
0.70797271 -0.60644698 2.2351577
0.73358655 -0.60975587 2.2365627
0.76367849 -0.60664433 2.2399998
0.79604506 -0.61438805 2.2362998
0.82581872 -0.61140037 2.2383997
0.85586989 -0.61053711 2.239579
0.88514233 -0.60891378 2.2359996
0.91666591 -0.60739416 2.2344997
0.9467786 -0.60475516 2.2361248
0.97777051 -0.605425 2.2377777
1.004541 -0.60559613 2.2319996
1.0244597 -0.60308295 2.2323334
1.0754459 -0.61677128 2.23
1.0878804 -0.60933727 2.2338617
1.1182055 -0.60362154 2.2440002
0.71099019 -0.59707475 2.2440002
0.72670269 -0.59707475 2.2440002
0.88971984 -0.59707475 2.2440002
0.92512101 -0.59618187 2.2370002
0.93685931 -0.59711039 2.2412002
1.0087849 -0.59573406 2.2376363
1.0266168 -0.5924145 2.2346666
1.0958341 -0.59517753 2.2387502
0.49380738 0.23812045 2.23
-0.10099597 0.26375571 2.2405002
-0.080201536 0.26402628 2.2299998
-0.035132524 0.2654458 2.23
-0.014944797 0.26498714 2.235091
0.053766608 0.26488653 2.2335
0.071889371 0.26264974 2.2374115
0.13908108 0.26356766 2.2350905
0.15630396 0.26377174 2.2323334
0.41322359 0.2611306 2.2360001
0.4307189 0.26132491 2.2343748
0.58616161 0.26002952 2.2393334
0.60601622 0.24947618 2.2427273
-0.78267479 0.28886744 2.23
-0.77486753 0.28886744 2.23
-0.74363863 0.28301203 2.23
-0.63635588 0.29068103 2.2440002
-0.61565584 0.28719446 2.2299998
-0.58926624 0.2841785 2.2408891
-0.4517341 0.27889666 2.2440002
-0.43526182 0.27839953 2.2400002
-0.4009006 0.2875959 2.2397997
-0.37326589 0.291033 2.2372413
-0.34525594 0.28929529 2.2359395
-0.3161431 0.29128483 2.2391722
-0.29045448 0.28346971 2.2379999
-0.13905552 0.27614701 2.244
-0.090346791 0.27300447 2.2440002
-0.076145127 0.2731556 2.244
-0.043770492 0.27104044 2.2440002
-0.011801843 0.2713424 2.2465
0.050083585 0.27104044 2.2440002
0.073652335 0.27104044 2.2440002
0.14534056 0.27104044 2.2440002
0.15712495 0.27104044 2.2440002
0.41056585 0.28260869 2.2337143
0.43916416 0.27339727 2.2440002
0.53815281 0.27889666 2.2440002
0.55190122 0.27889666 2.2440002
-0.3698982 0.30442947 2.2440002
-0.34960288 0.30246541 2.2440002
-0.32014197 0.30246541 2.2440002
-0.33487248 0.35058492 2.2440002
-0.32583645 0.35541579 2.2401819
-0.31718829 0.36428082 2.241667
-0.2730045 0.3888841 2.2440002
-0.40207234 0.40402412 2.23
-0.27104044 0.39281222 2.2440002
-0.31570709 0.56202078 2.2335
-0.31831974 0.57376152 2.2450001
-0.31742668 0.61643857 2.2348571
-0.32053164 0.64958233 2.2354779
-0.32210603 0.66778082 2.2440002
0.71054381 -0.60107636 2.2740002
0.73853093 -0.60107154 2.2671819
0.76606792 -0.60280305 2.2646253
0.79736054 -0.60598683 2.2662001
0.82323331 -0.60370809 2.2646251
0.85750949 -0.60522294 2.2654288
0.88036144 -0.60504019 2.2678235
0.91293454 -0.60370201 2.2590003
0.95300561 -0.60106581 2.2590001
0.97654516 -0.60377431 2.2665002
0.99892038 -0.60107285 2.2690001
1.0933859 -0.60106581 2.2590001
1.1308151 -0.60370559 2.2639999
1.1444333 -0.60804248 2.2740002
0.71600008 -0.59710622 2.2639999
0.73641795 -0.59709579 2.2740002
0.76656073 -0.59710097 2.2690001
0.89455819 -0.5935719 2.2656667
0.9153524 -0.58913982 2.2701435
0.94528365 -0.59335881 2.2678242
0.97127557 -0.59444195 2.2740002
1.0061918 -0.59411544 2.2690001
1.0342025 -0.58454394 2.2692003
1.0522152 -0.5878076 2.2740002
1.1046269 -0.59709579 2.2740002
1.124102 -0.59511071 2.2721252
1.1424429 -0.59709579 2.2740002
1.032312 -0.56525058 2.2740002
-0.14038047 0.2688978 2.2590001
-0.10281388 0.2688978 2.2590001
0.13247174 0.2688978 2.2590001
0.43498176 0.26692063 2.2590001
0.59711146 0.26692063 2.2590001
0.61790091 0.25831538 2.2614999
0.63391662 0.26172689 2.2740002
-0.61029434 0.29690662 2.2615001
-0.58690012 0.2954441 2.2675714
-0.54414386 0.29590973 2.2690001
-0.52241397 0.2904174 2.2695003
-0.45379266 0.29257679 2.2740002
-0.43757078 0.29226956 2.2690001
-0.41407999 0.29375386 2.2590001
-0.30053288 0.29657841 2.2590001
-0.28963661 0.29459596 2.2627499
-0.13237825 0.27975631 2.2678237
-0.10410574 0.27686289 2.2712729
-0.07550291 0.28459135 2.26425
-0.043948043 0.27923098 2.2652502
-0.025093988 0.27600482 2.2631667
0.053075168 0.27864459 2.2740002
0.072967723 0.2788718 2.2699091
0.13685939 0.27375805 2.2665
0.41758251 0.28234267 2.2590001
0.43436855 0.28137213 2.2638333
0.55188251 0.28385556 2.261143
0.58787918 0.27741924 2.2639999
0.61898923 0.2736688 2.2740002
-0.59046119 0.30252838 2.2740002
-0.42194757 0.30650905 2.2740002
-0.40866038 0.30680785 2.2653158
-0.37196094 0.31167209 2.2624617
-0.34461144 0.31635371 2.2642708
-0.31502634 0.30909315 2.2636876
-0.28901052 0.30411592 2.2680001
-0.26073176 0.30650908 2.2740002
0.42139098 0.30212924 2.2710001
-0.36223802 0.3303929 2.2740002
-0.33699679 0.33651611 2.2695882
-0.320198 0.35389552 2.2652502
-0.30746368 0.37338981 2.2637727
-0.29334319 0.37851238 2.2702503
-0.30229035 0.39851359 2.2590001
-0.28449667 0.40385315 2.2637732
-0.28498623 0.4284887 2.2665002
-0.3163504 0.56943071 2.2590001
-0.31327245 0.5755583 2.2701666
-0.30704966 0.62248874 2.2607648
-0.29590103 0.62227219 2.2690001
-0.30873647 0.64447409 2.2639999
-0.2985478 0.63491166 2.2740002
-0.31243041 0.66805673 2.2656667
0.71456289 -0.60370559 2.289
0.74127561 -0.60103428 2.289
0.77132726 -0.60103428 2.289
0.7973721 -0.60103422 2.2889998
0.82255828 -0.60160667 2.2889998
0.85475922 -0.60193706 2.2924616
0.88122416 -0.60152328 2.290875
1.0995888 -0.60250467 2.294625
1.1597834 -0.6090402 2.2965002
0.7161209 -0.59698707 2.2940001
0.73770899 -0.59042978 2.2972765
0.76371211 -0.58889425 2.2980917
0.79455382 -0.5881983 2.2984293
0.8214547 -0.58778477 2.2990005
0.85195613 -0.59323984 2.3002503
0.8875463 -0.59083617 2.2980006
0.91660464 -0.57880872 2.2947147
0.94790363 -0.58305025 2.2948933
0.97750831 -0.58563775 2.2938535
1.0039102 -0.58398277 2.2985132
1.0300932 -0.58129573 2.293546
1.0641038 -0.58206111 2.2947147
1.0979013 -0.5924989 2.2965004
1.1258578 -0.59312171 2.3000531
1.148002 -0.5919221 2.2977502
1.0170513 -0.55677992 2.2965
1.0304363 -0.5582639 2.2944005
1.0547621 -0.5675332 2.2939999
0.64110315 0.26645845 2.289
-0.53692389 0.29651016 2.289
-0.44075844 0.29651016 2.289
-0.12172927 0.28603655 2.2949998
-0.10854187 0.28812882 2.2929134
-0.071551695 0.29307571 2.2889998
-0.043570466 0.29015827 2.294769
-0.025490778 0.28842112 2.299
0.028232098 0.29038692 2.3040001
0.041869804 0.2854282 2.2965
0.070849776 0.28870642 2.2906666
0.1454287 0.28997266 2.300667
0.15678093 0.28743818 2.2965
0.43961367 0.29845321 2.3040001
0.45372963 0.29643664 2.3040001
0.55767262 0.29343998 2.3002501
0.59027803 0.28711057 2.2956667
0.61526322 0.28612772 2.2972503
0.6434229 0.27962658 2.2999094
0.66278142 0.283665 2.3040001
-0.60822141 0.3081412 2.2979999
-0.59376824 0.30773684 2.2950001
-0.54784703 0.30502284 2.2927501
-0.52496904 0.30466014 2.2940001
-0.45592389 0.30484691 2.3015001
-0.43732721 0.30728561 2.2946253
-0.37063774 0.32656193 2.289
-0.31320402 0.32391533 2.2920001
-0.28355837 0.3216255 2.299228
-0.25625265 0.31365281 2.3008749
-0.068510368 0.30227631 2.3024001
-0.37508315 0.33071846 2.3040001
-0.33257222 0.33858258 2.289
-0.32015768 0.33993396 2.2987831
-0.29240352 0.33071846 2.3040001
-0.3065196 0.36298361 2.3040001
-0.29599422 0.37223685 2.2927501
-0.27444515 0.43529448 2.2906666
-0.26618811 0.43356392 2.3040001
-0.30752912 0.58534056 2.2889998
-0.30211988 0.65392524 2.289
-0.29601306 0.64480901 2.299
-0.30394936 0.66754591 2.2932858
-0.29845327 0.66143692 2.3040001
0.73798805 -0.58194649 2.3223076
0.76425278 -0.57605588 2.3239129
0.79606283 -0.57808143 2.3297496
0.82647651 -0.5766353 2.3219998
0.85709143 -0.58387059 2.3266664
0.88373762 -0.58356154 2.3247995
0.91300803 -0.57906514 2.3278942
0.94114596 -0.57534134 2.3274996
0.97496957 -0.57874572 2.3274999
0.99972248 -0.57533121 2.3199999
1.0274736 -0.58074605 2.3200002
1.0790784 -0.57223856 2.335
1.0957425 -0.58379191 2.3258691
1.1246536 -0.58702427 2.3274996
1.1493764 -0.58363229 2.3217998
0.74762553 -0.56835687 2.3275001
0.76181763 -0.56533635 2.3334999
0.91694409 -0.55588889 2.335
0.97850132 -0.55539632 2.3343744
1.0064294 -0.55903304 2.3274996
1.0348432 -0.55562305 2.3274999
1.0642045 -0.56346768 2.3274999
1.137125 -0.56856257 2.3200002
1.1442811 -0.56766808 2.323
0.91558164 -0.53953928 2.335
0.97689295 -0.53953928 2.335
-0.032489255 0.29646468 2.3200002
-0.028428078 0.29646468 2.3200002
0.024419522 0.29710361 2.325
0.03959633 0.29646468 2.3200002
0.076609232 0.29621232 2.3233335
0.13684538 0.29465538 2.3285716
0.15432407 0.29646468 2.3200002
0.58576554 0.29694387 2.32375
0.61320651 0.29673848 2.3221428
0.64701325 0.29173768 2.3246152
0.6688239 0.2896494 2.325
-0.60095108 0.31983826 2.3275001
-0.59277081 0.3170287 2.329375
-0.55044299 0.31576395 2.3274999
-0.52103287 0.31882733 2.329
-0.4623172 0.31520918 2.3292303
-0.44643444 0.31830439 2.32375
-0.25497466 0.32223904 2.3221817
-0.23630875 0.31373334 2.3275001
-0.10559016 0.30052581 2.3200002
-0.065333031 0.31235483 2.3325002
-0.050070845 0.30757815 2.335
0.025546402 0.30349073 2.335
0.041782513 0.30383131 2.335
0.067442425 0.30246887 2.335
0.13650155 0.3027752 2.3328574
0.15464796 0.30253598 2.325
0.44501945 0.31220311 2.3287497
0.45801947 0.31151435 2.3288231
0.52584255 0.30778778 2.3297057
0.55535787 0.30250239 2.3300002
0.57973212 0.30383134 2.335
0.61724782 0.30275187 2.3266666
0.63763285 0.30149734 2.3275001
-0.30710727 0.3447465 2.3237498
-0.28641888 0.33775494 2.3246152
-0.26309893 0.33427671 2.3328574
-0.30795968 0.36357594 2.325
-0.26338026 0.43931431 2.32375
-0.30507281 0.68134385 2.32375
-0.29465973 0.67415261 2.3199999
-0.31530884 0.69637901 2.3264287
-0.29429403 0.69077361 2.335
0.79829592 -0.57448012 2.3531334
0.82710439 -0.57462275 2.353909
0.85517973 -0.57455975 2.3522305
0.88604754 -0.57581204 2.3570001
0.91053551 -0.57728189 2.3544288
0.95272112 -0.57204431 2.3510001
0.97809964 -0.57204431 2.3510001
1.0999366 -0.57425028 2.3563333
1.1225824 -0.57488894 2.3534007
1.1461462 -0.57615972 2.3510001
0.77644372 -0.56518519 2.3510001
0.79592252 -0.55950916 2.3598893
0.81874245 -0.56392139 2.3670003
0.85223109 -0.56459641 2.3643336
0.88669473 -0.55815512 2.3670003
0.91270572 -0.55450034 2.3536668
0.94607592 -0.55569869 2.3529587
0.9733969 -0.55584168 2.3553638
1.0006367 -0.55440676 2.3510001
1.0332414 -0.5530417 2.3590004
1.0670574 -0.55741912 2.3610003
1.0938437 -0.55889338 2.3643336
1.1240844 -0.56052458 2.3581579
1.1454601 -0.56655699 2.3510001
0.8970899 -0.53606099 2.3616667
0.91362578 -0.53571457 2.3583846
0.94395083 -0.53604227 2.3616669
1.0988188 -0.53912091 2.3510001
0.10494341 0.2963106 2.3510001
0.68041712 0.2963106 2.3510001
-0.60079789 0.32733124 2.3670001
-0.58016795 0.32402331 2.3601432
-0.56765032 0.3231878 2.3670001
-0.5288322 0.32923406 2.3510001
-0.48063833 0.32733124 2.3670001
-0.46712753 0.32561034 2.3545558
-0.24884818 0.32722798 2.3563335
-0.23663697 0.32511863 2.3510001
-0.046243999 0.31680235 2.3584669
-0.026185727 0.30868545 2.3616667
0.023970341 0.31405506 2.3606002
0.043313529 0.31202725 2.3569999
0.073934741 0.30914581 2.3616669
0.10241266 0.30352002 2.359
0.13576166 0.31114888 2.3574002
0.15692535 0.31177187 2.3590002
0.47327399 0.31483006 2.3510001
0.50008386 0.31391951 2.3661582
0.5196678 0.31693104 2.3574002
0.55422348 0.3147305 2.3590004
0.58367413 0.31249279 2.3583848
0.61266011 0.31366885 2.3619096
0.64951241 0.30927733 2.3601429
0.67665935 0.3061597 2.363445
0.69551277 0.31230858 2.3603334
-0.60701299 0.33147469 2.3670001
-0.58422416 0.33147469 2.3670001
-0.5179292 0.33147469 2.3670001
-0.49721199 0.33147469 2.3670001
-0.46095699 0.33872569 2.3670003
-0.3024838 0.35598433 2.3510001
-0.29354867 0.35061407 2.3563335
-0.25245526 0.33904034 2.3620002
-0.23617567 0.3335464 2.3670001
0.48892513 0.33147469 2.3670001
-0.30316532 0.36778033 2.3563335
-0.30964291 0.70965368 2.3606002
-0.29731888 0.70820421 2.3590002
-0.30992883 0.72261482 2.3670001
0.8388117 -0.57172745 2.3840001
0.90349621 -0.57172745 2.3840001
1.1142423 -0.57172745 2.3840001
0.8095994 -0.5550347 2.3840001
0.82509977 -0.56010216 2.3840003
0.84924465 -0.5612945 2.3840003
0.88852698 -0.55231297 2.3839996
0.90307891 -0.56421566 2.3840001
0.98070019 -0.54251504 2.3840001
1.0036528 -0.54564494 2.3840001
1.0349516 -0.55145758 2.3840001
1.064164 -0.55573022 2.3840001
1.0945686 -0.55384237 2.3840001
1.1156335 -0.56268555 2.3840001
0.91045147 -0.53277761 2.3840001
0.94383699 -0.53625524 2.3840001
0.96957165 -0.53695077 2.3840001
-0.5759005 0.32968217 2.3840001
-0.56755418 0.32968217 2.3840001
-0.039223783 0.32214275 2.3838
-0.027125731 0.31716254 2.3840001
0.027125813 0.32133579 2.3840001
0.07575953 0.31812561 2.3840003
0.1085031 0.30881616 2.3840001
0.13533068 0.32014343 2.3840001
0.15858133 0.31966648 2.3840001
0.50002426 0.32626775 2.3840003
0.52403373 0.32908601 2.3840001
0.552948 0.32655227 2.3840001
0.58007371 0.32133579 2.3840001
0.61554587 0.32550898 2.3840001
0.6494531 0.32550898 2.3840001
0.67573619 0.32197779 2.3840003
0.69525385 0.32467434 2.3840001
-0.60690135 0.33743238 2.3840001
-0.58424687 0.33524644 2.3840001
-0.5654676 0.33385536 2.3840001
-0.521649 0.33802855 2.3840001
-0.49802914 0.34025025 2.3825002
-0.4778305 0.34081066 2.3840001
-0.24900043 0.3463749 2.3840001
-0.23827103 0.34486949 2.388
0.50286973 0.33385536 2.3840001
0.51538926 0.33385536 2.3840001
-0.31646705 0.73169971 2.3840001
0.83106428 -0.55240494 2.4028332
0.85579586 -0.55284679 2.4025764
0.87910044 -0.55160391 2.4072859
0.98308086 -0.54195487 2.4000001
1.0075549 -0.54501462 2.4094443
1.0387414 -0.54563099 2.4091537
1.0676273 -0.54656744 2.41224
1.0927808 -0.54638439 2.4069548
1.1127422 -0.54579371 2.4170001
0.85680318 -0.53596836 2.4151111
0.88850498 -0.5359062 2.4091537
0.90793723 -0.53496796 2.4102001
0.94367278 -0.53622925 2.4091537
0.97600764 -0.53684014 2.4085
0.9921599 -0.53733182 2.4170001
1.0475367 -0.53162873 2.4185715
1.0658489 -0.53521639 2.4170001
1.0894721 -0.53627408 2.4170001
-0.037810788 0.32769361 2.4000001
-0.026257481 0.32454273 2.4000001
0.016804865 0.32769361 2.4000001
0.045613047 0.32289225 2.3999999
0.077955641 0.32676002 2.3999999
0.10599475 0.32005167 2.4056668
0.12856005 0.32381973 2.4024284
0.15964565 0.32601315 2.4000001
0.56296092 0.32769361 2.4000001
0.58326668 0.32769361 2.3999999
0.60497284 0.32769361 2.4000001
0.64698493 0.32349244 2.4000001
-0.60917401 0.3444984 2.4000001
-0.58266461 0.34307256 2.4013076
-0.55973703 0.34580398 2.4041665
-0.53775364 0.34029719 2.4000001
-0.24734448 0.35618472 2.4223335
-0.23393859 0.34700036 2.4048572
-0.040112264 0.33365798 2.41275
-0.025385749 0.33213025 2.4170001
0.018804299 0.33330548 2.4170001
0.046540566 0.33001477 2.4170001
0.078494228 0.33451429 2.4145715
0.10214745 0.33122358 2.4170001
0.12904429 0.33213025 2.4170001
0.16712292 0.33001477 2.4170001
0.50666481 0.34869957 2.4000001
0.52206182 0.34607667 2.4050999
0.55312908 0.33840942 2.412143
0.59233421 0.33001477 2.4170001
0.61547589 0.33189481 2.4000001
0.64927626 0.33517832 2.4085002
0.67555302 0.33189481 2.4000001
0.69529873 0.33189481 2.4000001
1.0119202 -0.54111111 2.434
1.0349711 -0.54522347 2.4458263
1.1056561 -0.54111111 2.434
0.86492556 -0.53472006 2.434
0.88413781 -0.53561532 2.4418464
0.91346484 -0.53663409 2.4408002
0.94374877 -0.53685045 2.434
0.97503412 -0.53448117 2.4447367
1.002301 -0.53261179 2.4459004
1.0389497 -0.53299206 2.4479232
1.0542212 -0.52624065 2.4442
1.0928741 -0.53685045 2.434
-0.61354327 0.35790023 2.434
-0.58797896 0.3579002 2.434
-0.55371201 0.35487449 2.4425001
-0.25777334 0.3579002 2.434
-0.12623478 0.35250461 2.4491112
-0.10960384 0.3518151 2.4435
-0.037839793 0.34371638 2.4412858
-0.022221185 0.34010535 2.4408002
0.015486067 0.34442422 2.4403751
0.041742995 0.33867633 2.4418464
0.072711959 0.34228578 2.4442
0.10730945 0.33911133 2.4388573
0.13241953 0.33881044 2.4396667
0.55409425 0.35088345 2.4417274
0.58360457 0.34566358 2.4432728
0.61209893 0.3428413 2.4481668
-0.72079992 0.37327135 2.4510002
-0.71153975 0.37068233 2.434
-0.67360467 0.36254516 2.4510002
-0.65098995 0.37199345 2.4520001
-0.61138296 0.36352172 2.4467502
-0.58451122 0.36647603 2.4496925
-0.55146915 0.36469039 2.4510002
-0.1201333 0.36469039 2.4510002
-0.11155239 0.36469039 2.4510002
0.92346412 -0.54024816 2.4690001
0.94651467 -0.54024816 2.4690001
0.96380264 -0.54024816 2.4690001
1.0394374 -0.54024816 2.4690001
0.88855451 -0.53005552 2.4801431
0.91501862 -0.53314459 2.4824998
0.9426384 -0.53605199 2.4858751
0.97585487 -0.52731472 2.4793851
1.0036877 -0.52199173 2.4708951
1.0342538 -0.52697158 2.468667
1.0502423 -0.53160423 2.4690001
0.97735941 -0.50718212 2.4870002
1.0070226 -0.50567234 2.4690001
-0.12965955 0.35440272 2.4690001
-0.10168741 0.3591606 2.4720001
-0.060948897 0.35698649 2.4870002
-0.04467082 0.35396582 2.4779999
0.012965921 0.35872471 2.4690001
0.047282957 0.35180488 2.4780002
0.07507199 0.35526398 2.4750001
0.10604936 0.35319072 2.4726
0.13186729 0.35396269 2.4780002
0.56401908 0.35872471 2.4690001
0.58173817 0.35751265 2.4726
0.61159766 0.35298944 2.4780002
-0.73397809 0.38126937 2.4750001
-0.70091254 0.37548879 2.4870002
-0.67392868 0.37753898 2.4769287
-0.6503374 0.37994707 2.4834001
-0.60882145 0.37493905 2.4741428
-0.57865858 0.3755416 2.4744
-0.56241095 0.37433067 2.4741428
-0.15600018 0.37585163 2.487
-0.13430494 0.37757376 2.4801726
-0.11187839 0.37474397 2.4819999
-0.087069876 0.36133996 2.4870002
0.021767553 0.36133996 2.4870002
0.042809367 0.36133996 2.4870002
0.077119045 0.36320576 2.4870002
0.10274248 0.36133996 2.4870002
0.12189779 0.36133996 2.4870002
0.55398214 0.36569345 2.4870002
0.8989256 -0.51743048 2.5050001
0.91281152 -0.52400786 2.5050004
0.94749802 -0.52754956 2.5050006
0.97520053 -0.52311319 2.5042005
1.0010579 -0.51455367 2.5037999
0.90769559 -0.50427538 2.5050001
0.972009 -0.50281382 2.5050001
0.13812765 0.35518521 2.5050001
0.62267041 0.35957018 2.5050001
-0.7003476 0.38400093 2.5049999
-0.68844545 0.3858802 2.5050001
-0.64503396 0.38061821 2.5050004
-0.61609292 0.3858802 2.5050001
-0.56128031 0.3858802 2.5050001
-0.10611705 0.37974122 2.5050001
-0.071568012 0.36561352 2.5030005
-0.043850012 0.36943647 2.5050001
0.017540079 0.36834019 2.5050001
0.046481054 0.36877874 2.5050004
0.07366813 0.36658621 2.5050001
0.10639694 0.36733571 2.5024288
0.1273174 0.36658883 2.5080001
0.51869076 0.36613455 2.49
0.58057439 0.3674632 2.5050001
-0.73317254 0.39377323 2.5050001
-0.71162331 0.3921445 2.5049999
-0.67847961 0.39345434 2.5050004
-0.65628868 0.39465022 2.5050001
-0.11401009 0.39026523 2.5050001
0.92059731 -0.5191856 2.523
0.94600904 -0.5171023 2.5343997
0.97158718 -0.51762885 2.5301249
0.99674875 -0.51172382 2.5420001
0.92194688 -0.50458658 2.523
0.9483009 -0.50618589 2.5365715
0.97145271 -0.50525957 2.5299094
0.99452388 -0.50727397 2.5420001
-0.64094627 0.38699681 2.523
-0.58739603 0.38865298 2.523
-0.55427229 0.38865298 2.523
-0.099222533 0.38273734 2.5306001
-0.074574322 0.37995803 2.5356665
-0.040343229 0.37948355 2.5324998
0.02037585 0.37743089 2.5306001
0.042518944 0.3796483 2.5340836
0.077051811 0.37775937 2.5388334
0.13760023 0.37373629 2.5356002
0.53881449 0.37098694 2.523
0.55639255 0.37460876 2.5325
0.58367044 0.37655208 2.5356667
0.61763895 0.36749062 2.5293334
0.63409245 0.37155586 2.5420001
-0.76091081 0.40492919 2.5420001
-0.73233348 0.4047913 2.531143
-0.70361441 0.40241334 2.5279999
-0.67888099 0.40442631 2.523
-0.6476028 0.39852166 2.5339999
-0.6183117 0.39306948 2.523
-0.58125049 0.3973282 2.5396249
-0.55454838 0.39849767 2.5293334
-0.52767003 0.40887955 2.5325003
-0.10820454 0.39306948 2.523
0.96347535 -0.50638479 2.5600002
-0.094106913 0.38987136 2.5600002
-0.078422397 0.38987136 2.5600002
-0.042572141 0.38987136 2.5600002
0.020165797 0.38987136 2.5600002
0.0425722 0.38987136 2.5600002
0.072820857 0.3853901 2.5600002
0.1411604 0.3853901 2.5600002
0.50638467 0.38987136 2.5600002
0.51624364 0.38628635 2.5600002
0.55418509 0.38165569 2.5600002
0.5848071 0.38539007 2.5600002
0.61457568 0.3777079 2.5600002
0.63634187 0.37792131 2.5600002
-0.76405829 0.41227782 2.5600002
-0.64306378 0.40779656 2.5600002
-0.59376967 0.40331519 2.5600002
-0.56128043 0.41339815 2.5600002
-0.098588169 0.39659327 2.5600002
-0.089625612 0.39659327 2.5600002
-0.042572159 0.39435264 2.5600002
0.022406403 0.39435264 2.5600002
0.50638467 0.39659327 2.5600002
0.5131067 0.39659327 2.5600002
0.53367501 0.38388464 2.5800002
0.5516327 0.38775578 2.5800002
0.61986095 0.38670737 2.5800002
0.64002287 0.38582021 2.5800002
-0.60509008 0.41855857 2.5990002
-0.5881024 0.4177936 2.5942502
-0.0967023 0.41023758 2.5895002
-0.076051041 0.40203771 2.5863335
-0.041812126 0.40156341 2.5823336
-0.027197538 0.39891356 2.5895002
0.027097845 0.40194982 2.5800002
0.04410737 0.40097755 2.5971005
0.073357105 0.39712104 2.5926669
0.528032 0.40487882 2.5833533
0.55439085 0.40478879 2.5928931
0.58397764 0.39991766 2.5901337
0.61218423 0.3971898 2.5947781
0.64300311 0.39505255 2.5990002
-0.78252262 0.42765766 2.5990002
-0.77569818 0.42765766 2.5990002
-0.57551801 0.42310813 2.5990002
-0.56427491 0.4251101 2.5926669
0.52319831 0.42310813 2.5990002
-0.075645231 0.41490269 2.6190002
-0.025302615 0.41418579 2.6290002
0.048137903 0.41146421 2.619
0.064183913 0.409554 2.6190002
0.59255445 0.41604882 2.6190002
0.61318493 0.41261035 2.6190002
0.64382011 0.41157141 2.6270001
0.66290832 0.41114163 2.6390002
-0.60779762 0.43152434 2.6304286
-0.58910739 0.42964083 2.6215003
-0.098282419 0.4239268 2.6323335
-0.069293551 0.42038086 2.6390002
-0.018478263 0.42269063 2.6390002
0.053895041 0.42654029 2.6390002
0.061594266 0.42654029 2.6390002
0.53369129 0.43573102 2.6340001
0.5584166 0.43491825 2.6315928
0.58095866 0.4334321 2.6340001
0.61286294 0.42294729 2.6390002
0.6398105 0.42038086 2.6390002
0.55434835 0.45271781 2.6390002
-0.61068088 0.44311601 2.6590002
-0.59113163 0.44218507 2.6590002
-0.1070553 0.43753049 2.6590002
-0.079127833 0.42822132 2.6590002
-0.020169834 0.42977285 2.6590002
0.54924047 0.44683963 2.6590002
0.58740795 0.44125414 2.6590002
0.61828339 0.43481532 2.6590002
0.64802098 0.42925563 2.6590002
0.53993136 0.45149422 2.6590002
0.55544657 0.45459726 2.6590002
0.57716787 0.45428696 2.6590002
-0.021892915 0.43785843 2.6800001
0.61515212 0.44391805 2.6800001
0.64427739 0.43942222 2.6800001
0.66147912 0.43629465 2.6800001
-0.61691117 0.4521279 2.6800001
-0.59110892 0.45036864 2.6800001
0.60752863 0.45036864 2.6800001
-0.09479484 0.44559333 2.7080002
-0.07433182 0.44599104 2.7220001
-0.61117274 0.46504486 2.7108002
-0.59567422 0.46040866 2.7115002
-0.097679675 0.45266181 2.7220001
0.58131313 0.47648612 2.7220001
0.61228919 0.45389768 2.7010002
-0.096032426 0.46095568 2.743
-0.073824912 0.45615405 2.743
0.59300029 0.48016214 2.743
0.60020274 0.48016214 2.743
-0.09721534 0.47388572 2.7765002
-0.07371892 0.46539736 2.7649996
0.59291625 0.48885339 2.7650001
0.60501665 0.48885337 2.7650001
-0.10329702 0.48697159 2.8100002
-0.099218346 0.4911308 2.8340001
-0.10002358 0.50011784 2.8570001
0 0.49511668 2.8570001
-0.0076067792 0.50388753 2.8930001
0.0033622042 0.5060001 2.8809998
-0.0063565033 0.52250451 2.9050002
0.0076208152 0.51748949 2.9030006
-0.008548243 0.53341228 2.9300001
0.0076934937 0.52913815 2.9300001
0.016811406 0.53667045 2.9550002
0.026082452 0.53729844 2.9800003
0.031299062 0.53729844 2.9800003
0.018779397 0.5466882 2.9800003
0.031299062 0.54251492 2.9800003
-0.26082453 0.6468448 2.9800003
0.012779185 0.55626893 3.0060003
0.046606343 0.55526668 3.0060003
0.071810894 0.56055808 3.0060003
0.097873256 0.55987716 3.006
0.13089234 0.5472483 3.0060003
0.16575319 0.54724824 3.006
-0.1287165 0.58935559 3.0098574
0.052620102 0.58934432 3.0060003
0.074072853 0.58873713 3.0059996
0.10524013 0.58671349 3.0059993
0.13267766 0.58596164 3.0059993
0.16180664 0.5814513 3.006
-0.13229406 0.60326087 3.0230002
0.047358111 0.60513031 3.006
0.073668055 0.60513031 3.0059998
0.13155007 0.60513031 3.006
-0.25783813 0.65248841 3.006
-0.11680381 0.5654369 3.0330002
-0.0053092875 0.56278229 3.0330002
0.013273202 0.56720662 3.0330002
0.057074711 0.56278223 3.0330002
0.074329779 0.55428731 3.0330002
0.10735345 0.55716097 3.0343692
0.13538632 0.55946398 3.0330007
0.16461675 0.55767798 3.0395007
0.18623407 0.56133378 3.0395002
-0.27630666 0.59438062 3.0590003
-0.26416913 0.5902158 3.0590003
-0.21729702 0.59585923 3.0460002
-0.19728483 0.59566963 3.046
-0.17520577 0.59994709 3.0330002
-0.12565261 0.58755881 3.0330002
-0.11494457 0.58922482 3.0441432
-0.0053548003 0.57563883 3.0590003
0.011310669 0.57647294 3.0492501
0.035006575 0.58842081 3.0441432
0.14865944 0.58667397 3.0330002
0.16487111 0.58533031 3.0340836
0.18716548 0.58544707 3.0460002
-0.27309382 0.60509014 3.0590003
-0.25702944 0.61579961 3.0590003
-0.2302555 0.62383181 3.0590003
-0.19277209 0.60865998 3.0590003
-0.17670771 0.6104449 3.0590003
-0.12894809 0.61497259 3.0373337
-0.11542524 0.61698961 3.0590003
0.022879539 0.61336571 3.0590003
0.043619968 0.61710674 3.0482948
0.074640788 0.61986095 3.0460005
0.10645391 0.61480415 3.0408006
0.13404302 0.61292201 3.0358894
0.1657297 0.60887182 3.0538001
0.18206261 0.60776752 3.0590003
-0.26039186 0.64246708 3.0460002
-0.2302555 0.63186401 3.0590003
-0.12553301 0.64310414 3.0445561
-0.11152668 0.64074796 3.0503337
0.021419201 0.63186401 3.0590003
-0.25100914 0.67733842 3.0468674
-0.2315942 0.68407309 3.0590003
-0.27077264 0.69285929 3.0330002
-0.25350043 0.69596809 3.0519094
-0.23561031 0.69344401 3.0590003
-0.20883641 0.70683092 3.0590003
-0.25397825 0.59982109 3.0870001
-0.10807588 0.58901352 3.0870001
-0.0081056701 0.58766258 3.0870001
0.015130661 0.59603846 3.0870001
0.032422885 0.59711921 3.0870001
0.19994041 0.57820594 3.0870001
-0.24992545 0.61738336 3.0870001
-0.22695932 0.6187343 3.0870004
-0.19453655 0.62305743 3.0870001
-0.17184061 0.61927474 3.0870001
-0.13985272 0.62283212 3.0726001
-0.10267206 0.62143624 3.0870001
-0.0054038148 0.60792673 3.0870001
0.01350952 0.61333054 3.0870001
0.16211386 0.62413812 3.0870001
0.18913278 0.61333054 3.0870001
-0.2701897 0.64980614 3.0870001
-0.2507996 0.64464074 3.0870006
-0.22527063 0.64372689 3.0870006
-0.1929926 0.63533169 3.0870001
-0.16910693 0.64654797 3.0870006
-0.13830352 0.64028388 3.0780001
-0.098515287 0.64596111 3.0870004
0.017112026 0.63584638 3.0870001
0.043230433 0.64459532 3.0870001
0.078355052 0.64305139 3.0870001
0.10267207 0.63764757 3.0870001
-0.24533224 0.67007041 3.0870001
-0.22986907 0.67796832 3.0870004
-0.19129428 0.6841203 3.0870001
-0.16686915 0.67547417 3.0870004
-0.13560946 0.67521697 3.0870008
-0.11185852 0.67115128 3.0870001
-0.27289161 0.71870458 3.0870001
-0.26208398 0.71870458 3.0870001
-0.22001158 0.69901937 3.0870004
-0.19412088 0.70166177 3.0870004
-0.1682381 0.69925094 3.0870006
-0.14410113 0.69348687 3.0870001
-0.26478589 0.72410834 3.0870001
-0.10905616 0.58617687 3.1150002
-0.010905554 0.59435606 3.1150002
-0.25082919 0.62434649 3.1150002
-0.16540183 0.62434649 3.115
-0.098150499 0.61889368 3.115
-0.0090879789 0.61253202 3.1150005
0.0015579808 0.61850417 3.115
0.17994262 0.62707287 3.1150002
0.19493794 0.62298322 3.1150002
-0.21889131 0.65589482 3.115
-0.19435367 0.650442 3.1150002
-0.16259283 0.64095271 3.115
-0.14613521 0.64888412 3.1150002
-0.094515286 0.63434327 3.1150005
-0.08724495 0.64452183 3.1150002
0.009088058 0.64343131 3.115
0.054528147 0.65433693 3.1150005
0.076339349 0.65324634 3.1150002
0.10516136 0.64810508 3.115
0.1663107 0.63797843 3.1150002
-0.2208387 0.67887449 3.1150005
-0.19339293 0.67687517 3.1150005
-0.16903707 0.66524255 3.1150002
-0.1404098 0.67478496 3.1150002
-0.10305803 0.68105567 3.115
-0.08724495 0.66524255 3.1150002
-0.24537636 0.71977055 3.1150002
-0.2317443 0.71977055 3.1150002
-0.18812186 0.70204902 3.1150002
-0.1668559 0.7175895 3.1150002
-0.13559315 0.70741099 3.1150005
-0.11199227 0.70173442 3.1150002
-0.25846305 0.73176682 3.1150002
-0.23992352 0.72522348 3.1150002
-0.19521053 0.72740459 3.1150002
-0.16631065 0.72522348 3.1150002
-0.1045346 0.5941968 3.1430004
-0.09903276 0.61253613 3.1430004
-0.013754502 0.62445676 3.1430001
-0.082527332 0.65471679 3.1430001
-0.012837529 0.63912827 3.1429999
0.1276423 0.65031534 3.1430001
0.17055652 0.64646399 3.1430001
0.20356746 0.63270944 3.1430001
-0.088029176 0.67672414 3.1430001
0.04401464 0.66572034 3.1430001
0.069689803 0.66572046 3.1429999
0.11003651 0.66021866 3.1430004
-0.09490636 0.70285773 3.1430001
-0.24538127 0.73834449 3.1430001
-0.22985323 0.73352396 3.1412001
-0.184311 0.7344932 3.1430001
-0.16945609 0.73504341 3.1430001
-0.13387765 0.73082525 3.1429999
-0.11082242 0.73017037 3.1429999
-0.016657718 0.6496526 3.1720002
0.14436738 0.65520513 3.1720002
0.16657765 0.65520513 3.1720002
0.18878795 0.65242887 3.1720002
0.013881502 0.66908664 3.1720002
0.046271622 0.67741561 3.1720002
0.075885393 0.67556471 3.1720002
0.099946626 0.6718629 3.1720002
0.1304858 0.66214591 3.1720002
0.1776828 0.66075772 3.1720002
-0.22536175 0.73887032 3.1656668
-0.16102499 0.74404651 3.1720002
-0.13326204 0.74404651 3.1720002
-0.096614957 0.73072034 3.1720002
0.010272849 0.68360883 3.2010002
0.043706197 0.68809146 3.2010002
0.077646501 0.68841171 3.2010002
0.1080647 0.68280834 3.2010002
0.13448045 0.67489254 3.2010002
0.16810058 0.67240202 3.2010002
0.18958008 0.67053431 3.2010002
0.073403932 0.69817758 3.2010002
0.095257014 0.69481552 3.2010002
-0.17090216 0.75645238 3.2010002
-0.12887704 0.75645238 3.2010002
-0.098058596 0.75084901 3.2010002
-0.016967556 0.68153185 3.2310002
0.14139676 0.68435973 3.2310002
0.15836421 0.68435973 3.2310002
0.19229943 0.68435973 3.2310002
-0.021080928 0.7044124 3.2310004
0.012389075 0.70832986 3.2309999
0.043071643 0.70785332 3.2310002
0.075411618 0.70981121 3.2310002
0.1051992 0.70302415 3.2310004
0.1308929 0.69486362 3.2310004
0.16684809 0.69001567 3.2310002
0.18805759 0.69142962 3.2310002
0.0070698867 0.73243463 3.2310002
0.04713222 0.72395086 3.2310002
0.074831493 0.72960675 3.2310002
0.090493992 0.72395086 3.2310002
-0.18664354 0.76542717 3.2310002
-0.17211005 0.76176953 3.2235003
-0.12819958 0.77108306 3.2310002
-0.11230934 0.76515782 3.2310004
-0.034260809 0.7137664 3.2620001
-0.018168561 0.70753723 3.2620008
0.022840571 0.71490842 3.2620003
0.1394904 0.70642483 3.2620006
0.16844891 0.70234615 3.2620001
0.18557927 0.70234615 3.2620001
-0.011420234 0.72899342 3.2620001
0.013323654 0.74041367 3.2620001
0.074231669 0.74802727 3.2620001
0.1360915 0.72899342 3.2620003
-0.19128937 0.77657777 3.2620001
-0.1770141 0.77657777 3.2620001
-0.097072169 0.77086776 3.2620001
-0.18843429 0.78228801 3.2620001
-0.12562282 0.78228801 3.2620001
0.14987445 0.71190298 3.2930002
0.17004976 0.71478516 3.2930002
0.028821984 0.72054958 3.2930002
0.14699218 0.73399979 3.293
0.17293198 0.73380762 3.2929997
0.16001321 0.73897004 3.3240001
0.18619724 0.73198771 3.3240001
0.16001326 0.75206202 3.3240001
-0.65837175 1.0029403 3.5150001
-0.67227602 0.98973984 3.5560002
-0.67227602 0.99596447 3.5560002
1.4617937 0.72148609 3.5840001
-0.68172872 0.99418777 3.6060002
1.4862425 0.70735079 3.6322503
1.5057522 0.70783216 3.6760001
1.5180792 0.703659 3.7220001
1.5409197 0.70763266 3.7780001
-0.79379225 1.1943978 4.2380004
-0.69420987 1.3045042 4.3580003
-0.84602714 1.2108278 4.434
-0.93789697 1.4155297 4.9610004
-0.96222711 1.4036158 5.0430002
-0.96222711 1.4124434 5.0430002
-2.4799852 2.1015315 5.0870004
-0.97882712 1.4098701 5.1300001
-0.97882712 1.4188503 5.1300001
-2.5215552 2.1238904 5.1630001
-2.5215552 2.1419661 5.1630001
-2.5125172 2.1419661 5.1630001
-2.5234332 1.5232362 5.2420001
-2.5142572 1.518648 5.2420001
-2.5280213 1.5324122 5.2420001
-2.4500244 1.9636899 5.2420001
-2.5417855 1.9958062 5.2420001
-2.5050809 1.9912181 5.2420001
-2.4775527 1.9889241 5.2420001
-2.5555496 2.1472125 5.2420001
-2.5526283 1.5557989 5.322
-2.5712607 1.5651151 5.322
-2.5308905 1.8508106 5.322
-2.5246797 1.8632323 5.322
-2.5805769 2.012291 5.322
-2.5632756 2.0242686 5.322
-2.5246797 2.0309231 5.322
-2.6178412 2.1753237 5.322
-2.6023145 2.1861925 5.322
-2.6178412 2.1986141 5.322
-2.6085253 2.1986141 5.322
2.1860001 1.078805 5.4060001
2.1954632 1.0977315 5.4060001
0.91162205 1.6876045 5.4060001
-2.5645282 1.8358616 5.4060001
-2.5834541 1.8831774 5.4060001
-2.5266752 1.9683462 5.4060001
-2.6591601 2.0345886 5.4060001
-2.6213074 2.0322227 5.4060001
-2.5408702 2.0156622 5.4060001
-2.6449652 2.0440519 5.4060001
-2.6307704 2.0440519 5.4060001
-2.5905516 2.0487835 5.4060001
-2.5881858 2.0771732 5.4060001
-2.5929177 2.115026 5.4060001
-2.6465423 2.1544559 5.4060001
-2.6213074 2.1481473 5.4060006
-2.5976491 2.1481469 5.4060001
-2.6922812 2.1859999 5.4060001
-2.647331 2.1812682 5.4060001
-2.6165757 2.1670735 5.4060001
-2.5976491 2.1670735 5.4060001
-2.6828179 2.2143896 5.4060001
-2.6528511 2.2033491 5.4060001
-2.6165757 2.2001946 5.4060001
-2.5992262 2.2017717 5.4060001
-2.6780865 2.2333162 5.4060001
-2.6638918 2.2333159 5.4060001
-2.6118443 2.2333162 5.4060001
0.92506242 1.7070737 5.4480004
2.2492073 1.0477076 5.4910002
2.2313564 1.0696779 5.4910007
2.1819232 1.1053795 5.4910002
2.191535 1.0957674 5.4910002
2.2251773 1.0861555 5.4910002
2.1987443 1.1222005 5.4910002
2.2203712 1.1149914 5.4910002
2.196341 1.1438273 5.4910002
0.94197547 1.7013232 5.4910002
0.94197547 1.7157412 5.4910002
-2.633687 1.7686071 5.4910002
-2.6529107 1.7974432 5.4910002
-2.633687 1.7878312 5.4910002
-2.6625228 1.8070552 5.4910002
-2.633687 1.8262792 5.4910002
-2.5856268 1.8551152 5.4910002
-2.6240749 1.8791451 5.4910002
-2.5928359 1.8791451 5.4910002
-2.6529109 1.9079812 5.4910002
-2.6240749 1.8999711 5.4909997
-2.6000447 1.8935632 5.4910002
-2.6490662 1.9300888 5.4910002
-2.6192689 1.922399 5.4910002
-2.6432989 1.9512351 5.4910002
-2.5688057 1.9944892 5.4910002
-2.6836693 2.0242865 5.4910002
-2.6577168 2.028131 5.4910002
-2.6144629 2.028131 5.4910002
-2.5952387 2.028131 5.4909997
-2.5631988 2.021723 5.4909997
-2.7057767 2.056967 5.4910002
-2.6801445 2.0537632 5.4910007
-2.6497071 2.0537632 5.4910007
-2.627279 2.056967 5.4910007
-2.5964403 2.0581684 5.4910007
-2.5728109 2.0633752 5.4909997
-2.5952387 2.0825989 5.4909997
-2.6000447 2.1098332 5.4910002
-2.7009706 2.1530871 5.4910002
-2.6481049 2.1482811 5.4910002
-2.627279 2.1370671 5.4909997
-2.5952389 2.1482811 5.4910002
-2.7009706 2.1723111 5.4909997
-2.6849511 2.1659031 5.4909997
-2.6529109 2.1651022 5.4910002
-2.626478 2.169908 5.4910002
-2.5952389 2.1771169 5.4910002
-2.7009706 2.196341 5.4910002
-2.691359 2.2011471 5.4910002
-2.6208708 2.197943 5.4909997
-2.6048508 2.2011471 5.4910002
-2.7217968 2.2299831 5.4910007
-2.6509883 2.2319055 5.4910002
-2.6252766 2.2323861 5.4910007
-2.7201948 2.2684312 5.4910002
-2.691359 2.278043 5.4910002
-2.6432989 2.2636251 5.4910002
-2.6240749 2.2588189 5.4910002
-2.7009706 2.302073 5.4910002
-2.6817467 2.302073 5.4910007
-2.6529109 2.2972672 5.4910002
-2.5952389 2.302073 5.4910002
-2.5683255 2.3030343 5.4910002
2.2612438 1.0695732 5.5800004
2.2856634 1.0744569 5.5800004
2.2172887 1.1330637 5.5800004
2.2417083 1.1232959 5.5800004
2.2172887 1.1428314 5.5800004
2.2387779 1.1506457 5.5800004
2.2563601 1.1525992 5.5800004
2.2172887 1.172135 5.5800004
2.2382197 1.1791118 5.5800009
2.2612438 1.1819026 5.5800004
0.0097680148 1.3479552 5.5800004
0.0097680148 1.3577229 5.5800004
2.0414684 1.3772585 5.5800004
2.0463524 1.3870263 5.5800004
0.078142256 1.4456331 5.5800004
-2.6763749 1.6019176 5.5800004
-2.6666069 1.6116855 5.5800004
-2.6666069 1.6263373 5.5800004
0.95724344 1.7191312 5.5800004
-2.7154458 1.7972736 5.5800004
-2.6861427 1.7940177 5.5800004
-2.7382374 1.820065 5.5800004
-2.7173994 1.8148556 5.5800004
-2.6861427 1.8070413 5.5800004
-2.7138178 1.8461126 5.5800004
-2.6837006 1.8436706 5.5800004
-2.7105622 1.8656482 5.5800004
-2.6802819 1.8734623 5.5800004
-2.6666069 1.8754159 5.5800004
-2.617768 1.8851837 5.5800004
-2.6861427 1.9047194 5.5800004
-2.617768 1.8949516 5.5800004
-2.7105622 1.9437904 5.5800004
-2.6828868 1.9275109 5.5800004
-2.6568391 1.9340227 5.5800004
-2.6340477 1.9340225 5.5800004
-2.7349815 1.9682099 5.5800004
-2.7166669 1.9633257 5.5800009
-2.6959105 1.9682099 5.5800004
-2.6617231 1.96821 5.5800004
-2.7382374 1.9958853 5.5800004
-2.7154458 1.9926294 5.5800004
-2.6959105 1.9926293 5.5800004
-2.6666069 1.9828615 5.5800004
-2.7374234 2.019491 5.5800004
-2.715446 2.0219326 5.5800009
-2.6934686 2.019491 5.5800004
-2.6470714 2.0268168 5.5800004
-2.6303267 2.0205374 5.5800009
-2.5982327 2.0219328 5.5800004
-2.578697 2.0317006 5.5800004
-2.7740526 2.0463524 5.5800004
-2.7496333 2.0487943 5.5800004
-2.7134926 2.0453756 5.5800004
-2.6849217 2.0500154 5.5800009
-2.6519551 2.0414684 5.5800004
-2.6261404 2.0484455 5.5800009
-2.6014886 2.0479803 5.5800004
-2.5754411 2.0479803 5.5800004
-2.7545171 2.0805395 5.5800004
-2.5982327 2.0854235 5.5800004
-2.5669754 2.0844467 5.5800004
-2.6202102 2.1220527 5.5800004
-2.6047444 2.1098428 5.5800004
-2.6226521 2.1440301 5.5800004
-2.7545171 2.1879852 5.5800004
-2.659281 2.1806593 5.5800004
-2.6247449 2.1768222 5.5800009
-2.6031165 2.1879852 5.5800004
-2.7935884 2.202637 5.5800004
-2.7545173 2.2075207 5.5800004
-2.6568391 2.2075207 5.5800004
-2.6247449 2.2061255 5.5800009
-2.6010232 2.2089164 5.5800009
-2.578697 2.2172885 5.5800004
-2.7935884 2.2368243 5.5800004
-2.7740526 2.2368243 5.5800004
-2.7545171 2.2319403 5.5800004
-2.6519551 2.2270565 5.5800004
-2.6226521 2.2319403 5.5800004
-2.6031165 2.2319403 5.5800004
-2.578697 2.2319403 5.5800004
-2.7545171 2.2661276 5.5800004
-2.6495132 2.2636857 5.5800004
-2.6226518 2.2661276 5.5800004
3.0475509 2.2563598 5.5800004
3.0866222 2.2758954 5.5800004
3.0963898 2.2758954 5.5800004
-2.6763749 2.3051989 5.5800004
-2.6568391 2.2954309 5.5800009
-2.6275361 2.2954309 5.5800004
-2.5982325 2.3051989 5.5800004
-2.5669754 2.3012917 5.5800004
3.0866222 2.2954309 5.5800004
3.1042039 2.2993381 5.5800004
-2.7642848 2.3345022 5.5800004
-2.7545171 2.3345022 5.5800004
-2.6812587 2.3149664 5.5800004
-2.654397 2.3198504 5.5800004
-2.6275358 2.3149664 5.5800004
-2.5957906 2.3247342 5.5800004
-2.568929 2.3247342 5.5800004
3.0866222 2.3198504 5.5800004
3.1029015 2.3214784 5.5800004
-2.5884647 2.34427 5.5800004
